6.4267316635 -64.2795233346 548
6.4267316635 -64.2795233346 549
6.61575318302 -66.1700975503 550
6.61575318302 -66.1700975503 551
6.61575318302 -66.1700975503 552
6.80477470253 -68.0606717661 553
6.80477470253 -68.0606717661 554
6.80477470253 -68.0606717661 555
6.80477470253 -68.0606717661 556
6.99379622205 -69.9512459818 557
6.99379622205 -69.9512459818 558
6.99379622205 -69.9512459818 559
6.80477470253 -68.0606717661 560
6.99379622205 -69.9512459818 561
6.99379622205 -69.9512459818 562
6.99379622205 -69.9512459818 563
6.99379622205 -69.9512459818 564
7.18281774156 -71.8418201975 565
7.37183926108 -73.7323944132 566
7.37183926108 -73.7323944132 567
7.37183926108 -73.7323944132 568
7.37183926108 -73.7323944132 569
7.37183926108 -73.7323944132 570
7.37183926108 -73.7323944132 571
7.37183926108 -73.7323944132 572
7.37183926108 -73.7323944132 573
7.37183926108 -73.7323944132 574
7.37183926108 -73.7323944132 575
7.56086078059 -75.622968629 576
7.56086078059 -75.622968629 577
7.56086078059 -75.622968629 578
7.56086078059 -75.622968629 579
7.56086078059 -75.622968629 580
7.56086078059 -75.622968629 581
7.56086078059 -75.622968629 582
7.56086078059 -75.622968629 583
7.56086078059 -75.622968629 584
7.56086078059 -75.622968629 585
7.56086078059 -75.622968629 586
7.56086078059 -75.622968629 587
7.56086078059 -75.622968629 588
7.56086078059 -75.622968629 589
7.56086078059 -75.622968629 590
7.56086078059 -75.622968629 591
7.56086078059 -75.622968629 592
7.56086078059 -75.622968629 593
7.56086078059 -75.622968629 594
7.56086078059 -75.622968629 595
7.56086078059 -75.622968629 596
7.56086078059 -75.622968629 597
7.56086078059 -75.622968629 598
7.56086078059 -75.622968629 599
7.56086078059 -75.622968629 600
7.37183926108 -73.7323944132 601
7.56086078059 -75.622968629 602
7.56086078059 -75.622968629 603
7.37183926108 -73.7323944132 604
7.37183926108 -73.7323944132 605
7.37183926108 -73.7323944132 606
7.37183926108 -73.7323944132 607
7.37183926108 -73.7323944132 608
7.18281774156 -71.8418201975 609
6.99379622205 -69.9512459818 610
6.99379622205 -69.9512459818 611
6.99379622205 -69.9512459818 612
6.99379622205 -69.9512459818 613
6.99379622205 -69.9512459818 614
6.99379622205 -69.9512459818 615
6.80477470253 -68.0606717661 616
6.80477470253 -68.0606717661 617
6.80477470253 -68.0606717661 618
6.80477470253 -68.0606717661 619
6.61575318302 -66.1700975503 620
6.61575318302 -66.1700975503 621
6.61575318302 -66.1700975503 622
6.61575318302 -66.1700975503 623
6.61575318302 -66.1700975503 624
6.4267316635 -64.2795233346 625
6.4267316635 -64.2795233346 626
6.4267316635 -64.2795233346 627
6.4267316635 -64.2795233346 628
6.4267316635 -64.2795233346 629
6.4267316635 -64.2795233346 630
6.4267316635 -64.2795233346 631
6.4267316635 -64.2795233346 632
6.4267316635 -64.2795233346 633
6.23771014399 -62.3889491189 634
6.23771014399 -62.3889491189 635
6.04868862448 -60.4983749032 636
6.04868862448 -60.4983749032 637
6.04868862448 -60.4983749032 638
6.04868862448 -60.4983749032 639
6.04868862448 -60.4983749032 640
5.85966710496 -58.6078006874 641
5.67064558545 -56.7172264717 642
5.67064558545 -56.7172264717 643
5.48162406593 -54.826652256 644
5.48162406593 -54.826652256 645
5.48162406593 -54.826652256 646
5.29260254642 -52.9360780403 647
5.29260254642 -52.9360780403 648
5.29260254642 -52.9360780403 649
2.03016462783 -22.7094348583 510
2.36852539914 -26.494340668 511
2.36852539914 -26.494340668 512
2.36852539914 -26.494340668 513
2.53770578479 -28.3867935729 514
3.04524694175 -34.0641522875 515
3.38360771306 -37.8490580972 516
3.38360771306 -37.8490580972 517
3.38360771306 -37.8490580972 518
3.55278809871 -39.741511002 519
3.72196848436 -41.6339639069 520
3.89114887001 -43.5264168118 521
3.89114887001 -43.5264168118 522
3.89114887001 -43.5264168118 523
4.06032925567 -45.4188697166 524
4.06032925567 -45.4188697166 525
4.22950964132 -47.3113226215 526
4.39869002697 -49.2037755263 527
4.56787041263 -51.0962284312 528
4.39869002697 -49.2037755263 529
4.56787041263 -51.0962284312 530
4.73705079828 -52.9886813361 531
4.73705079828 -52.9886813361 532
4.73705079828 -52.9886813361 533
4.90623118393 -54.8811342409 534
5.07541156958 -56.7735871458 535
5.07541156958 -56.7735871458 536
5.07541156958 -56.7735871458 537
5.07541156958 -56.7735871458 538
5.07541156958 -56.7735871458 539
5.24459195524 -58.6660400506 540
5.24459195524 -58.6660400506 541
5.41377234089 -60.5584929555 542
5.41377234089 -60.5584929555 543
5.58295272654 -62.4509458604 544
5.7521331122 -64.3433987652 545
5.7521331122 -64.3433987652 546
5.7521331122 -64.3433987652 547
5.7521331122 -64.3433987652 548
5.7521331122 -64.3433987652 549
5.92131349785 -66.2358516701 550
6.0904938835 -68.1283045749 551
6.0904938835 -68.1283045749 552
5.92131349785 -66.2358516701 553
6.0904938835 -68.1283045749 554
6.0904938835 -68.1283045749 555
6.0904938835 -68.1283045749 556
6.25967426915 -70.0207574798 557
6.25967426915 -70.0207574798 558
6.25967426915 -70.0207574798 559
6.25967426915 -70.0207574798 560
6.42885465481 -71.9132103847 561
6.42885465481 -71.9132103847 562
6.42885465481 -71.9132103847 563
6.42885465481 -71.9132103847 564
6.42885465481 -71.9132103847 565
6.42885465481 -71.9132103847 566
6.42885465481 -71.9132103847 567
6.42885465481 -71.9132103847 568
6.59803504046 -73.8056632895 569
6.59803504046 -73.8056632895 570
6.59803504046 -73.8056632895 571
6.59803504046 -73.8056632895 572
6.59803504046 -73.8056632895 573
6.76721542611 -75.6981161944 574
6.76721542611 -75.6981161944 575
6.76721542611 -75.6981161944 576
6.76721542611 -75.6981161944 577
6.93639581176 -77.5905690992 578
6.76721542611 -75.6981161944 579
6.76721542611 -75.6981161944 580
6.76721542611 -75.6981161944 581
6.76721542611 -75.6981161944 582
6.76721542611 -75.6981161944 583
6.76721542611 -75.6981161944 584
6.76721542611 -75.6981161944 585
6.76721542611 -75.6981161944 586
6.76721542611 -75.6981161944 587
6.76721542611 -75.6981161944 588
6.76721542611 -75.6981161944 589
6.93639581176 -77.5905690992 590
6.93639581176 -77.5905690992 591
6.76721542611 -75.6981161944 592
6.76721542611 -75.6981161944 593
6.76721542611 -75.6981161944 594
6.76721542611 -75.6981161944 595
6.76721542611 -75.6981161944 596
6.76721542611 -75.6981161944 597
6.76721542611 -75.6981161944 598
6.76721542611 -75.6981161944 599
6.76721542611 -75.6981161944 600
6.76721542611 -75.6981161944 601
6.59803504046 -73.8056632895 602
6.59803504046 -73.8056632895 603
6.59803504046 -73.8056632895 604
6.59803504046 -73.8056632895 605
6.59803504046 -73.8056632895 606
6.59803504046 -73.8056632895 607
6.59803504046 -73.8056632895 608
6.59803504046 -73.8056632895 609
6.42885465481 -71.9132103847 610
6.42885465481 -71.9132103847 611
6.42885465481 -71.9132103847 612
6.25967426915 -70.0207574798 613
6.25967426915 -70.0207574798 614
6.25967426915 -70.0207574798 615
6.0904938835 -68.1283045749 616
6.0904938835 -68.1283045749 617
6.0904938835 -68.1283045749 618
6.0904938835 -68.1283045749 619
6.0904938835 -68.1283045749 620
5.92131349785 -66.2358516701 621
5.92131349785 -66.2358516701 622
5.92131349785 -66.2358516701 623
5.92131349785 -66.2358516701 624
5.92131349785 -66.2358516701 625
5.7521331122 -64.3433987652 626
5.7521331122 -64.3433987652 627
5.7521331122 -64.3433987652 628
5.7521331122 -64.3433987652 629
5.7521331122 -64.3433987652 630
5.7521331122 -64.3433987652 631
5.58295272654 -62.4509458604 632
5.58295272654 -62.4509458604 633
5.58295272654 -62.4509458604 634
5.58295272654 -62.4509458604 635
5.41377234089 -60.5584929555 636
5.41377234089 -60.5584929555 637
5.24459195524 -58.6660400506 638
5.24459195524 -58.6660400506 639
5.24459195524 -58.6660400506 640
5.24459195524 -58.6660400506 641
5.07541156958 -56.7735871458 642
5.07541156958 -56.7735871458 643
5.07541156958 -56.7735871458 644
4.90623118393 -54.8811342409 645
4.90623118393 -54.8811342409 646
4.90623118393 -54.8811342409 647
4.73705079828 -52.9886813361 648
4.73705079828 -52.9886813361 649
2.23980955888 -28.4118505758 512
2.23980955888 -28.4118505758 513
2.38913019614 -30.3059739475 514
2.83709210792 -35.9883440626 515
2.98641274518 -37.8824674344 516
3.13573338243 -39.7765908061 517
3.13573338243 -39.7765908061 518
3.28505401969 -41.6707141778 519
3.43437465695 -43.5648375495 520
3.43437465695 -43.5648375495 521
3.43437465695 -43.5648375495 522
3.58369529421 -45.4589609212 523
3.58369529421 -45.4589609212 524
3.73301593147 -47.353084293 525
3.73301593147 -47.353084293 526
3.88233656873 -49.2472076647 527
3.88233656873 -49.2472076647 528
4.03165720599 -51.1413310364 529
4.18097784325 -53.0354544081 530
4.18097784325 -53.0354544081 531
4.03165720599 -51.1413310364 532
4.33029848051 -54.9295777798 533
4.33029848051 -54.9295777798 534
4.33029848051 -54.9295777798 535
4.33029848051 -54.9295777798 536
4.47961911776 -56.8237011515 537
4.47961911776 -56.8237011515 538
4.62893975502 -58.7178245233 539
4.77826039228 -60.611947895 540
4.77826039228 -60.611947895 541
4.77826039228 -60.611947895 542
4.77826039228 -60.611947895 543
4.92758102954 -62.5060712667 544
4.92758102954 -62.5060712667 545
4.92758102954 -62.5060712667 546
4.92758102954 -62.5060712667 547
5.0769016668 -64.4001946384 548
5.0769016668 -64.4001946384 549
5.22622230406 -66.2943180101 550
5.22622230406 -66.2943180101 551
5.37554294132 -68.1884413819 552
5.37554294132 -68.1884413819 553
5.37554294132 -68.1884413819 554
5.52486357858 -70.0825647536 555
5.52486357858 -70.0825647536 556
5.52486357858 -70.0825647536 557
5.52486357858 -70.0825647536 558
5.52486357858 -70.0825647536 559
5.52486357858 -70.0825647536 560
5.52486357858 -70.0825647536 561
5.67418421583 -71.9766881253 562
5.67418421583 -71.9766881253 563
5.67418421583 -71.9766881253 564
5.67418421583 -71.9766881253 565
5.67418421583 -71.9766881253 566
5.67418421583 -71.9766881253 567
5.67418421583 -71.9766881253 568
5.82350485309 -73.870811497 569
5.82350485309 -73.870811497 570
5.82350485309 -73.870811497 571
5.97282549035 -75.7649348687 572
5.67418421583 -71.9766881253 573
5.82350485309 -73.870811497 574
5.82350485309 -73.870811497 575
5.97282549035 -75.7649348687 576
5.97282549035 -75.7649348687 577
5.82350485309 -73.870811497 578
5.82350485309 -73.870811497 579
5.97282549035 -75.7649348687 580
5.97282549035 -75.7649348687 581
5.97282549035 -75.7649348687 582
5.97282549035 -75.7649348687 583
5.97282549035 -75.7649348687 584
6.12214612761 -77.6590582404 585
6.12214612761 -77.6590582404 586
5.97282549035 -75.7649348687 587
5.97282549035 -75.7649348687 588
5.97282549035 -75.7649348687 589
5.97282549035 -75.7649348687 590
5.97282549035 -75.7649348687 591
5.97282549035 -75.7649348687 592
5.97282549035 -75.7649348687 593
5.97282549035 -75.7649348687 594
5.97282549035 -75.7649348687 595
5.97282549035 -75.7649348687 596
5.97282549035 -75.7649348687 597
5.97282549035 -75.7649348687 598
5.97282549035 -75.7649348687 599
5.97282549035 -75.7649348687 600
5.97282549035 -75.7649348687 601
5.97282549035 -75.7649348687 602
5.97282549035 -75.7649348687 603
5.97282549035 -75.7649348687 604
5.97282549035 -75.7649348687 605
5.82350485309 -73.870811497 606
5.82350485309 -73.870811497 607
5.82350485309 -73.870811497 608
5.67418421583 -71.9766881253 609
5.52486357858 -70.0825647536 610
5.52486357858 -70.0825647536 611
5.52486357858 -70.0825647536 612
5.52486357858 -70.0825647536 613
5.52486357858 -70.0825647536 614
5.37554294132 -68.1884413819 615
5.37554294132 -68.1884413819 616
5.22622230406 -66.2943180101 617
5.22622230406 -66.2943180101 618
5.22622230406 -66.2943180101 619
5.37554294132 -68.1884413819 620
5.37554294132 -68.1884413819 621
5.22622230406 -66.2943180101 622
5.22622230406 -66.2943180101 623
5.37554294132 -68.1884413819 624
5.22622230406 -66.2943180101 625
5.22622230406 -66.2943180101 626
5.22622230406 -66.2943180101 627
5.0769016668 -64.4001946384 628
5.0769016668 -64.4001946384 629
5.0769016668 -64.4001946384 630
5.0769016668 -64.4001946384 631
5.0769016668 -64.4001946384 632
4.92758102954 -62.5060712667 633
4.92758102954 -62.5060712667 634
4.77826039228 -60.611947895 635
4.77826039228 -60.611947895 636
4.77826039228 -60.611947895 637
4.77826039228 -60.611947895 638
4.77826039228 -60.611947895 639
4.62893975502 -58.7178245233 640
4.47961911776 -56.8237011515 641
4.47961911776 -56.8237011515 642
4.47961911776 -56.8237011515 643
4.47961911776 -56.8237011515 644
4.47961911776 -56.8237011515 645
4.47961911776 -56.8237011515 646
4.33029848051 -54.9295777798 647
4.33029848051 -54.9295777798 648
4.18097784325 -53.0354544081 649
1.81222243238 -26.538196055 511
1.81222243238 -26.538196055 512
2.07111135129 -30.32936692 513
2.3300002702 -34.120537785 514
2.45944472966 -36.0161232176 515
2.58888918911 -37.9117086501 516
2.58888918911 -37.9117086501 517
2.58888918911 -37.9117086501 518
2.58888918911 -37.9117086501 519
2.71833364857 -39.8072940826 520
2.97722256748 -43.5984649476 521
2.97722256748 -43.5984649476 522
3.10666702694 -45.4940503801 523
3.23611148639 -47.3896358126 524
3.36555594585 -49.2852212451 525
3.36555594585 -49.2852212451 526
3.36555594585 -49.2852212451 527
3.4950004053 -51.1808066776 528
3.4950004053 -51.1808066776 529
3.62444486476 -53.0763921101 530
3.62444486476 -53.0763921101 531
3.75388932422 -54.9719775426 532
3.62444486476 -53.0763921101 533
3.62444486476 -53.0763921101 534
3.62444486476 -53.0763921101 535
3.75388932422 -54.9719775426 536
3.88333378367 -56.8675629751 537
4.01277824313 -58.7631484076 538
4.01277824313 -58.7631484076 539
4.14222270258 -60.6587338401 540
4.14222270258 -60.6587338401 541
4.14222270258 -60.6587338401 542
4.14222270258 -60.6587338401 543
4.14222270258 -60.6587338401 544
4.14222270258 -60.6587338401 545
4.14222270258 -60.6587338401 546
4.14222270258 -60.6587338401 547
4.14222270258 -60.6587338401 548
4.40111162149 -64.4499047051 549
4.53055608095 -66.3454901376 550
4.53055608095 -66.3454901376 551
4.53055608095 -66.3454901376 552
4.53055608095 -66.3454901376 553
4.53055608095 -66.3454901376 554
4.6600005404 -68.2410755701 555
4.78944499986 -70.1366610026 556
4.78944499986 -70.1366610026 557
4.78944499986 -70.1366610026 558
4.78944499986 -70.1366610026 559
4.78944499986 -70.1366610026 560
4.78944499986 -70.1366610026 561
4.78944499986 -70.1366610026 562
4.78944499986 -70.1366610026 563
4.91888945932 -72.0322464351 564
4.91888945932 -72.0322464351 565
5.04833391877 -73.9278318676 566
4.91888945932 -72.0322464351 567
4.91888945932 -72.0322464351 568
4.91888945932 -72.0322464351 569
5.04833391877 -73.9278318676 570
5.04833391877 -73.9278318676 571
5.04833391877 -73.9278318676 572
5.04833391877 -73.9278318676 573
5.04833391877 -73.9278318676 574
5.17777837823 -75.8234173001 575
5.30722283768 -77.7190027326 576
5.30722283768 -77.7190027326 577
5.17777837823 -75.8234173001 578
5.17777837823 -75.8234173001 579
5.17777837823 -75.8234173001 580
5.30722283768 -77.7190027326 581
5.30722283768 -77.7190027326 582
5.17777837823 -75.8234173001 583
5.17777837823 -75.8234173001 584
5.17777837823 -75.8234173001 585
5.17777837823 -75.8234173001 586
5.30722283768 -77.7190027326 587
5.30722283768 -77.7190027326 588
5.17777837823 -75.8234173001 589
5.17777837823 -75.8234173001 590
5.17777837823 -75.8234173001 591
5.30722283768 -77.7190027326 592
5.30722283768 -77.7190027326 593
5.30722283768 -77.7190027326 594
5.30722283768 -77.7190027326 595
5.17777837823 -75.8234173001 596
5.17777837823 -75.8234173001 597
5.04833391877 -73.9278318676 598
5.17777837823 -75.8234173001 599
5.17777837823 -75.8234173001 600
5.04833391877 -73.9278318676 601
5.04833391877 -73.9278318676 602
5.04833391877 -73.9278318676 603
5.04833391877 -73.9278318676 604
5.04833391877 -73.9278318676 605
5.04833391877 -73.9278318676 606
5.04833391877 -73.9278318676 607
4.91888945932 -72.0322464351 608
4.91888945932 -72.0322464351 609
5.04833391877 -73.9278318676 610
5.04833391877 -73.9278318676 611
4.78944499986 -70.1366610026 612
4.78944499986 -70.1366610026 613
4.78944499986 -70.1366610026 614
4.6600005404 -68.2410755701 615
4.6600005404 -68.2410755701 616
4.6600005404 -68.2410755701 617
4.6600005404 -68.2410755701 618
4.78944499986 -70.1366610026 619
4.6600005404 -68.2410755701 620
4.6600005404 -68.2410755701 621
4.6600005404 -68.2410755701 622
4.6600005404 -68.2410755701 623
4.53055608095 -66.3454901376 624
4.53055608095 -66.3454901376 625
4.53055608095 -66.3454901376 626
4.53055608095 -66.3454901376 627
4.53055608095 -66.3454901376 628
4.53055608095 -66.3454901376 629
4.40111162149 -64.4499047051 630
4.40111162149 -64.4499047051 631
4.40111162149 -64.4499047051 632
4.27166716204 -62.5543192726 633
4.27166716204 -62.5543192726 634
4.27166716204 -62.5543192726 635
4.14222270258 -60.6587338401 636
4.14222270258 -60.6587338401 637
4.14222270258 -60.6587338401 638
4.14222270258 -60.6587338401 639
4.01277824313 -58.7631484076 640
4.01277824313 -58.7631484076 641
4.01277824313 -58.7631484076 642
3.88333378367 -56.8675629751 643
3.75388932422 -54.9719775426 644
3.75388932422 -54.9719775426 645
3.75388932422 -54.9719775426 646
3.75388932422 -54.9719775426 647
3.62444486476 -53.0763921101 648
3.62444486476 -53.0763921101 649
1.64331058761 -28.4525838952 514
1.97197270513 -34.1431006742 515
2.08152674431 -36.0399396006 516
2.19108078348 -37.9367785269 517
2.30063482265 -39.8336174533 518
2.30063482265 -39.8336174533 519
2.519742901 -43.627295306 520
2.519742901 -43.627295306 521
2.519742901 -43.627295306 522
2.62929694017 -45.5241342323 523
2.73885097935 -47.4209731586 524
2.73885097935 -47.4209731586 525
2.84840501852 -49.317812085 526
2.84840501852 -49.317812085 527
2.9579590577 -51.2146510113 528
2.9579590577 -51.2146510113 529
3.06751309687 -53.1114899377 530
3.06751309687 -53.1114899377 531
3.06751309687 -53.1114899377 532
3.06751309687 -53.1114899377 533
3.17706713604 -55.008328864 534
3.17706713604 -55.008328864 535
3.28662117522 -56.9051677904 536
3.39617521439 -58.8020067167 537
3.39617521439 -58.8020067167 538
3.39617521439 -58.8020067167 539
3.39617521439 -58.8020067167 540
3.39617521439 -58.8020067167 541
3.50572925357 -60.6988456431 542
3.50572925357 -60.6988456431 543
3.61528329274 -62.5956845694 544
3.72483733191 -64.4925234958 545
3.72483733191 -64.4925234958 546
3.72483733191 -64.4925234958 547
3.83439137109 -66.3893624221 548
3.83439137109 -66.3893624221 549
3.83439137109 -66.3893624221 550
3.83439137109 -66.3893624221 551
3.83439137109 -66.3893624221 552
3.94394541026 -68.2862013484 553
3.94394541026 -68.2862013484 554
3.94394541026 -68.2862013484 555
3.94394541026 -68.2862013484 556
4.05349944944 -70.1830402748 557
4.05349944944 -70.1830402748 558
4.05349944944 -70.1830402748 559
4.16305348861 -72.0798792011 560
4.16305348861 -72.0798792011 561
4.16305348861 -72.0798792011 562
4.16305348861 -72.0798792011 563
4.16305348861 -72.0798792011 564
4.27260752778 -73.9767181275 565
4.27260752778 -73.9767181275 566
4.27260752778 -73.9767181275 567
4.27260752778 -73.9767181275 568
4.27260752778 -73.9767181275 569
4.27260752778 -73.9767181275 570
4.27260752778 -73.9767181275 571
4.27260752778 -73.9767181275 572
4.27260752778 -73.9767181275 573
4.38216156696 -75.8735570538 574
4.38216156696 -75.8735570538 575
4.38216156696 -75.8735570538 576
4.38216156696 -75.8735570538 577
4.38216156696 -75.8735570538 578
4.49171560613 -77.7703959802 579
4.49171560613 -77.7703959802 580
4.38216156696 -75.8735570538 581
4.38216156696 -75.8735570538 582
4.38216156696 -75.8735570538 583
4.38216156696 -75.8735570538 584
4.38216156696 -75.8735570538 585
4.49171560613 -77.7703959802 586
4.49171560613 -77.7703959802 587
4.49171560613 -77.7703959802 588
4.38216156696 -75.8735570538 589
4.38216156696 -75.8735570538 590
4.38216156696 -75.8735570538 591
4.49171560613 -77.7703959802 592
4.49171560613 -77.7703959802 593
4.38216156696 -75.8735570538 594
4.38216156696 -75.8735570538 595
4.38216156696 -75.8735570538 596
4.38216156696 -75.8735570538 597
4.38216156696 -75.8735570538 598
4.38216156696 -75.8735570538 599
4.38216156696 -75.8735570538 600
4.27260752778 -73.9767181275 601
4.27260752778 -73.9767181275 602
4.27260752778 -73.9767181275 603
4.38216156696 -75.8735570538 604
4.38216156696 -75.8735570538 605
4.27260752778 -73.9767181275 606
4.27260752778 -73.9767181275 607
4.27260752778 -73.9767181275 608
4.16305348861 -72.0798792011 609
4.16305348861 -72.0798792011 610
4.16305348861 -72.0798792011 611
4.16305348861 -72.0798792011 612
4.05349944944 -70.1830402748 613
4.05349944944 -70.1830402748 614
3.94394541026 -68.2862013484 615
3.94394541026 -68.2862013484 616
3.94394541026 -68.2862013484 617
3.94394541026 -68.2862013484 618
3.94394541026 -68.2862013484 619
3.94394541026 -68.2862013484 620
3.94394541026 -68.2862013484 621
3.94394541026 -68.2862013484 622
3.94394541026 -68.2862013484 623
3.83439137109 -66.3893624221 624
3.83439137109 -66.3893624221 625
3.83439137109 -66.3893624221 626
3.83439137109 -66.3893624221 627
3.83439137109 -66.3893624221 628
3.72483733191 -64.4925234958 629
3.72483733191 -64.4925234958 630
3.72483733191 -64.4925234958 631
3.72483733191 -64.4925234958 632
3.72483733191 -64.4925234958 633
3.61528329274 -62.5956845694 634
3.61528329274 -62.5956845694 635
3.61528329274 -62.5956845694 636
3.61528329274 -62.5956845694 637
3.50572925357 -60.6988456431 638
3.50572925357 -60.6988456431 639
3.39617521439 -58.8020067167 640
3.39617521439 -58.8020067167 641
3.39617521439 -58.8020067167 642
3.39617521439 -58.8020067167 643
3.28662117522 -56.9051677904 644
3.17706713604 -55.008328864 645
3.17706713604 -55.008328864 646
3.06751309687 -53.1114899377 647
2.9579590577 -51.2146510113 648
2.9579590577 -51.2146510113 649
1.25512190876 -26.5703720146 511
1.34477347367 -28.4682557299 512
1.34477347367 -28.4682557299 513
1.52407660349 -32.2640231606 514
1.6137281684 -34.1619068759 515
1.70337973331 -36.0597905912 516
1.79303129822 -37.9576743066 517
1.88268286313 -39.8555580219 518
1.97233442805 -41.7534417372 519
2.06198599296 -43.6513254526 520
2.06198599296 -43.6513254526 521
2.15163755787 -45.5492091679 522
2.15163755787 -45.5492091679 523
2.24128912278 -47.4470928832 524
2.24128912278 -47.4470928832 525
2.33094068769 -49.3449765985 526
2.33094068769 -49.3449765985 527
2.4205922526 -51.2428603139 528
2.4205922526 -51.2428603139 529
2.51024381751 -53.1407440292 530
2.51024381751 -53.1407440292 531
2.59989538242 -55.0386277445 532
2.59989538242 -55.0386277445 533
2.59989538242 -55.0386277445 534
2.68954694734 -56.9365114599 535
2.68954694734 -56.9365114599 536
2.68954694734 -56.9365114599 537
2.68954694734 -56.9365114599 538
2.68954694734 -56.9365114599 539
2.77919851225 -58.8343951752 540
2.86885007716 -60.7322788905 541
2.86885007716 -60.7322788905 542
2.86885007716 -60.7322788905 543
2.95850164207 -62.6301626058 544
3.04815320698 -64.5280463212 545
3.04815320698 -64.5280463212 546
3.04815320698 -64.5280463212 547
3.04815320698 -64.5280463212 548
3.04815320698 -64.5280463212 549
3.13780477189 -66.4259300365 550
3.13780477189 -66.4259300365 551
3.2274563368 -68.3238137518 552
3.13780477189 -66.4259300365 553
3.2274563368 -68.3238137518 554
3.2274563368 -68.3238137518 555
3.2274563368 -68.3238137518 556
3.31710790171 -70.2216974672 557
3.31710790171 -70.2216974672 558
3.31710790171 -70.2216974672 559
3.31710790171 -70.2216974672 560
3.40675946662 -72.1195811825 561
3.40675946662 -72.1195811825 562
3.40675946662 -72.1195811825 563
3.40675946662 -72.1195811825 564
3.40675946662 -72.1195811825 565
3.49641103154 -74.0174648978 566
3.49641103154 -74.0174648978 567
3.49641103154 -74.0174648978 568
3.49641103154 -74.0174648978 569
3.49641103154 -74.0174648978 570
3.49641103154 -74.0174648978 571
3.49641103154 -74.0174648978 572
3.58606259645 -75.9153486131 573
3.58606259645 -75.9153486131 574
3.58606259645 -75.9153486131 575
3.58606259645 -75.9153486131 576
3.58606259645 -75.9153486131 577
3.67571416136 -77.8132323285 578
3.58606259645 -75.9153486131 579
3.58606259645 -75.9153486131 580
3.58606259645 -75.9153486131 581
3.58606259645 -75.9153486131 582
3.58606259645 -75.9153486131 583
3.58606259645 -75.9153486131 584
3.58606259645 -75.9153486131 585
3.58606259645 -75.9153486131 586
3.58606259645 -75.9153486131 587
3.58606259645 -75.9153486131 588
3.58606259645 -75.9153486131 589
3.58606259645 -75.9153486131 590
3.58606259645 -75.9153486131 591
3.58606259645 -75.9153486131 592
3.58606259645 -75.9153486131 593
3.58606259645 -75.9153486131 594
3.58606259645 -75.9153486131 595
3.58606259645 -75.9153486131 596
3.58606259645 -75.9153486131 597
3.58606259645 -75.9153486131 598
3.58606259645 -75.9153486131 599
3.58606259645 -75.9153486131 600
3.58606259645 -75.9153486131 601
3.49641103154 -74.0174648978 602
3.58606259645 -75.9153486131 603
3.58606259645 -75.9153486131 604
3.58606259645 -75.9153486131 605
3.49641103154 -74.0174648978 606
3.49641103154 -74.0174648978 607
3.49641103154 -74.0174648978 608
3.40675946662 -72.1195811825 609
3.40675946662 -72.1195811825 610
3.40675946662 -72.1195811825 611
3.40675946662 -72.1195811825 612
3.31710790171 -70.2216974672 613
3.2274563368 -68.3238137518 614
3.31710790171 -70.2216974672 615
3.31710790171 -70.2216974672 616
3.31710790171 -70.2216974672 617
3.2274563368 -68.3238137518 618
3.2274563368 -68.3238137518 619
3.31710790171 -70.2216974672 620
3.2274563368 -68.3238137518 621
3.13780477189 -66.4259300365 622
3.13780477189 -66.4259300365 623
3.13780477189 -66.4259300365 624
3.13780477189 -66.4259300365 625
3.13780477189 -66.4259300365 626
3.13780477189 -66.4259300365 627
3.13780477189 -66.4259300365 628
3.04815320698 -64.5280463212 629
3.04815320698 -64.5280463212 630
3.04815320698 -64.5280463212 631
3.04815320698 -64.5280463212 632
2.95850164207 -62.6301626058 633
2.95850164207 -62.6301626058 634
2.95850164207 -62.6301626058 635
2.86885007716 -60.7322788905 636
2.86885007716 -60.7322788905 637
2.86885007716 -60.7322788905 638
2.77919851225 -58.8343951752 639
2.86885007716 -60.7322788905 640
2.77919851225 -58.8343951752 641
2.68954694734 -56.9365114599 642
2.68954694734 -56.9365114599 643
2.68954694734 -56.9365114599 644
2.68954694734 -56.9365114599 645
2.59989538242 -55.0386277445 646
2.59989538242 -55.0386277445 647
2.59989538242 -55.0386277445 648
2.59989538242 -55.0386277445 649
0.836870717894 -22.7846362139 510
1.04608839737 -28.4807952674 511
1.11582762386 -30.3795149519 512
1.18556685035 -32.2782346364 513
1.18556685035 -32.2782346364 514
1.32504530333 -36.0756740054 515
1.39478452982 -37.9743936899 516
1.46452375632 -39.8731133744 517
1.46452375632 -39.8731133744 518
1.46452375632 -39.8731133744 519
1.53426298281 -41.7718330589 520
1.6040022093 -43.6705527434 521
1.6040022093 -43.6705527434 522
1.67374143579 -45.5692724279 523
1.74348066228 -47.4679921124 524
1.81321988877 -49.3667117969 525
1.81321988877 -49.3667117969 526
1.88295911526 -51.2654314814 527
1.88295911526 -51.2654314814 528
1.88295911526 -51.2654314814 529
1.95269834175 -53.1641511659 530
1.95269834175 -53.1641511659 531
1.95269834175 -53.1641511659 532
1.95269834175 -53.1641511659 533
2.02243756824 -55.0628708504 534
2.09217679474 -56.9615905348 535
2.09217679474 -56.9615905348 536
2.09217679474 -56.9615905348 537
2.16191602123 -58.8603102193 538
2.16191602123 -58.8603102193 539
2.23165524772 -60.7590299038 540
2.23165524772 -60.7590299038 541
2.23165524772 -60.7590299038 542
2.23165524772 -60.7590299038 543
2.30139447421 -62.6577495883 544
2.30139447421 -62.6577495883 545
2.3711337007 -64.5564692728 546
2.3711337007 -64.5564692728 547
2.3711337007 -64.5564692728 548
2.44087292719 -66.4551889573 549
2.44087292719 -66.4551889573 550
2.51061215368 -68.3539086418 551
2.51061215368 -68.3539086418 552
2.51061215368 -68.3539086418 553
2.51061215368 -68.3539086418 554
2.51061215368 -68.3539086418 555
2.58035138017 -70.2526283263 556
2.58035138017 -70.2526283263 557
2.58035138017 -70.2526283263 558
2.58035138017 -70.2526283263 559
2.58035138017 -70.2526283263 560
2.58035138017 -70.2526283263 561
2.65009060667 -72.1513480108 562
2.65009060667 -72.1513480108 563
2.65009060667 -72.1513480108 564
2.71982983316 -74.0500676953 565
2.71982983316 -74.0500676953 566
2.71982983316 -74.0500676953 567
2.71982983316 -74.0500676953 568
2.71982983316 -74.0500676953 569
2.71982983316 -74.0500676953 570
2.71982983316 -74.0500676953 571
2.71982983316 -74.0500676953 572
2.78956905965 -75.9487873798 573
2.78956905965 -75.9487873798 574
2.78956905965 -75.9487873798 575
2.85930828614 -77.8475070643 576
2.85930828614 -77.8475070643 577
2.85930828614 -77.8475070643 578
2.78956905965 -75.9487873798 579
2.78956905965 -75.9487873798 580
2.78956905965 -75.9487873798 581
2.78956905965 -75.9487873798 582
2.78956905965 -75.9487873798 583
2.85930828614 -77.8475070643 584
2.78956905965 -75.9487873798 585
2.85930828614 -77.8475070643 586
2.85930828614 -77.8475070643 587
2.85930828614 -77.8475070643 588
2.85930828614 -77.8475070643 589
2.85930828614 -77.8475070643 590
2.85930828614 -77.8475070643 591
2.78956905965 -75.9487873798 592
2.78956905965 -75.9487873798 593
2.78956905965 -75.9487873798 594
2.78956905965 -75.9487873798 595
2.78956905965 -75.9487873798 596
2.78956905965 -75.9487873798 597
2.78956905965 -75.9487873798 598
2.78956905965 -75.9487873798 599
2.78956905965 -75.9487873798 600
2.78956905965 -75.9487873798 601
2.78956905965 -75.9487873798 602
2.78956905965 -75.9487873798 603
2.78956905965 -75.9487873798 604
2.78956905965 -75.9487873798 605
2.78956905965 -75.9487873798 606
2.78956905965 -75.9487873798 607
2.65009060667 -72.1513480108 608
2.65009060667 -72.1513480108 609
2.65009060667 -72.1513480108 610
2.65009060667 -72.1513480108 611
2.65009060667 -72.1513480108 612
2.65009060667 -72.1513480108 613
2.65009060667 -72.1513480108 614
2.58035138017 -70.2526283263 615
2.58035138017 -70.2526283263 616
2.58035138017 -70.2526283263 617
2.58035138017 -70.2526283263 618
2.58035138017 -70.2526283263 619
2.58035138017 -70.2526283263 620
2.51061215368 -68.3539086418 621
2.44087292719 -66.4551889573 622
2.44087292719 -66.4551889573 623
2.44087292719 -66.4551889573 624
2.44087292719 -66.4551889573 625
2.44087292719 -66.4551889573 626
2.44087292719 -66.4551889573 627
2.44087292719 -66.4551889573 628
2.44087292719 -66.4551889573 629
2.44087292719 -66.4551889573 630
2.44087292719 -66.4551889573 631
2.3711337007 -64.5564692728 632
2.3711337007 -64.5564692728 633
2.3711337007 -64.5564692728 634
2.30139447421 -62.6577495883 635
2.30139447421 -62.6577495883 636
2.30139447421 -62.6577495883 637
2.23165524772 -60.7590299038 638
2.23165524772 -60.7590299038 639
2.23165524772 -60.7590299038 640
2.16191602123 -58.8603102193 641
2.16191602123 -58.8603102193 642
2.16191602123 -58.8603102193 643
2.09217679474 -56.9615905348 644
2.09217679474 -56.9615905348 645
2.09217679474 -56.9615905348 646
2.02243756824 -55.0628708504 647
2.02243756824 -55.0628708504 648
2.02243756824 -55.0628708504 649
0.597830577878 -22.7921609024 509
0.647649792702 -24.6915076442 510
0.697469007525 -26.5908543861 511
0.797107437171 -30.3895478698 512
0.797107437171 -30.3895478698 513
0.846926651995 -32.2888946117 514
0.896745866818 -34.1882413536 515
0.946565081641 -36.0875880954 516
1.04620351129 -39.8862815792 517
1.04620351129 -39.8862815792 518
1.09602272611 -41.785628321 519
1.09602272611 -41.785628321 520
1.14584194093 -43.6849750629 521
1.19566115576 -45.5843218048 522
1.19566115576 -45.5843218048 523
1.24548037058 -47.4836685466 524
1.2952995854 -49.3830152885 525
1.2952995854 -49.3830152885 526
1.2952995854 -49.3830152885 527
1.34511880023 -51.2823620304 528
1.34511880023 -51.2823620304 529
1.34511880023 -51.2823620304 530
1.39493801505 -53.1817087722 531
1.39493801505 -53.1817087722 532
1.44475722987 -55.0810555141 533
1.44475722987 -55.0810555141 534
1.4945764447 -56.980402256 535
1.4945764447 -56.980402256 536
1.54439565952 -58.8797489978 537
1.54439565952 -58.8797489978 538
1.54439565952 -58.8797489978 539
1.54439565952 -58.8797489978 540
1.59421487434 -60.7790957397 541
1.59421487434 -60.7790957397 542
1.64403408917 -62.6784424816 543
1.64403408917 -62.6784424816 544
1.64403408917 -62.6784424816 545
1.69385330399 -64.5777892234 546
1.69385330399 -64.5777892234 547
1.69385330399 -64.5777892234 548
1.69385330399 -64.5777892234 549
1.74367251881 -66.4771359653 550
1.74367251881 -66.4771359653 551
1.79349173364 -68.3764827072 552
1.84331094846 -70.275829449 553
1.84331094846 -70.275829449 554
1.84331094846 -70.275829449 555
1.84331094846 -70.275829449 556
1.84331094846 -70.275829449 557
1.89313016328 -72.1751761909 558
1.89313016328 -72.1751761909 559
1.89313016328 -72.1751761909 560
1.89313016328 -72.1751761909 561
1.89313016328 -72.1751761909 562
1.89313016328 -72.1751761909 563
1.94294937811 -74.0745229327 564
1.94294937811 -74.0745229327 565
1.94294937811 -74.0745229327 566
1.94294937811 -74.0745229327 567
1.94294937811 -74.0745229327 568
1.94294937811 -74.0745229327 569
1.94294937811 -74.0745229327 570
1.94294937811 -74.0745229327 571
1.99276859293 -75.9738696746 572
1.99276859293 -75.9738696746 573
1.99276859293 -75.9738696746 574
1.99276859293 -75.9738696746 575
2.04258780775 -77.8732164165 576
2.04258780775 -77.8732164165 577
2.04258780775 -77.8732164165 578
2.04258780775 -77.8732164165 579
1.99276859293 -75.9738696746 580
1.99276859293 -75.9738696746 581
2.04258780775 -77.8732164165 582
2.04258780775 -77.8732164165 583
2.04258780775 -77.8732164165 584
2.04258780775 -77.8732164165 585
2.04258780775 -77.8732164165 586
2.04258780775 -77.8732164165 587
1.99276859293 -75.9738696746 588
2.04258780775 -77.8732164165 589
2.04258780775 -77.8732164165 590
2.04258780775 -77.8732164165 591
2.04258780775 -77.8732164165 592
2.04258780775 -77.8732164165 593
2.04258780775 -77.8732164165 594
2.04258780775 -77.8732164165 595
1.99276859293 -75.9738696746 596
1.99276859293 -75.9738696746 597
1.99276859293 -75.9738696746 598
1.99276859293 -75.9738696746 599
1.99276859293 -75.9738696746 600
1.99276859293 -75.9738696746 601
1.99276859293 -75.9738696746 602
1.99276859293 -75.9738696746 603
1.94294937811 -74.0745229327 604
1.94294937811 -74.0745229327 605
1.94294937811 -74.0745229327 606
1.94294937811 -74.0745229327 607
1.94294937811 -74.0745229327 608
1.94294937811 -74.0745229327 609
1.94294937811 -74.0745229327 610
1.89313016328 -72.1751761909 611
1.84331094846 -70.275829449 612
1.89313016328 -72.1751761909 613
1.89313016328 -72.1751761909 614
1.94294937811 -74.0745229327 615
1.89313016328 -72.1751761909 616
1.79349173364 -68.3764827072 617
1.79349173364 -68.3764827072 618
1.79349173364 -68.3764827072 619
1.79349173364 -68.3764827072 620
1.79349173364 -68.3764827072 621
1.79349173364 -68.3764827072 622
1.79349173364 -68.3764827072 623
1.79349173364 -68.3764827072 624
1.79349173364 -68.3764827072 625
1.79349173364 -68.3764827072 626
1.74367251881 -66.4771359653 627
1.74367251881 -66.4771359653 628
1.74367251881 -66.4771359653 629
1.74367251881 -66.4771359653 630
1.69385330399 -64.5777892234 631
1.69385330399 -64.5777892234 632
1.69385330399 -64.5777892234 633
1.64403408917 -62.6784424816 634
1.64403408917 -62.6784424816 635
1.64403408917 -62.6784424816 636
1.64403408917 -62.6784424816 637
1.59421487434 -60.7790957397 638
1.59421487434 -60.7790957397 639
1.54439565952 -58.8797489978 640
1.54439565952 -58.8797489978 641
1.54439565952 -58.8797489978 642
1.54439565952 -58.8797489978 643
1.54439565952 -58.8797489978 644
1.4945764447 -56.980402256 645
1.44475722987 -55.0810555141 646
1.44475722987 -55.0810555141 647
1.44475722987 -55.0810555141 648
1.44475722987 -55.0810555141 649
0.358724659928 -22.7971778214 509
0.388618381588 -24.6969426398 510
0.418512103249 -26.5967074582 511
0.47829954657 -30.3962370951 512
0.47829954657 -30.3962370951 513
0.508193268231 -32.2960019136 514
0.538086989891 -34.195766732 515
0.597874433213 -37.9952963689 516
0.597874433213 -37.9952963689 517
0.627768154873 -39.8950611874 518
0.657661876534 -41.7948260058 519
0.687555598195 -43.6945908243 520
0.687555598195 -43.6945908243 521
0.717449319855 -45.5943556427 522
0.747343041516 -47.4941204612 523
0.747343041516 -47.4941204612 524
0.777236763177 -49.3938852796 525
0.747343041516 -47.4941204612 526
0.777236763177 -49.3938852796 527
0.807130484837 -51.293650098 528
0.837024206498 -53.1934149165 529
0.837024206498 -53.1934149165 530
0.837024206498 -53.1934149165 531
0.837024206498 -53.1934149165 532
0.866917928159 -55.0931797349 533
0.866917928159 -55.0931797349 534
0.896811649819 -56.9929445534 535
0.896811649819 -56.9929445534 536
0.896811649819 -56.9929445534 537
0.896811649819 -56.9929445534 538
0.92670537148 -58.8927093718 539
0.92670537148 -58.8927093718 540
0.95659909314 -60.7924741903 541
0.986492814801 -62.6922390087 542
0.986492814801 -62.6922390087 543
0.986492814801 -62.6922390087 544
0.986492814801 -62.6922390087 545
1.01638653646 -64.5920038272 546
1.01638653646 -64.5920038272 547
1.01638653646 -64.5920038272 548
1.04628025812 -66.4917686456 549
1.04628025812 -66.4917686456 550
1.04628025812 -66.4917686456 551
1.07617397978 -68.3915334641 552
1.07617397978 -68.3915334641 553
1.10606770144 -70.2912982825 554
1.10606770144 -70.2912982825 555
1.10606770144 -70.2912982825 556
1.10606770144 -70.2912982825 557
1.10606770144 -70.2912982825 558
1.10606770144 -70.2912982825 559
1.10606770144 -70.2912982825 560
1.1359614231 -72.1910631009 561
1.1359614231 -72.1910631009 562
1.1359614231 -72.1910631009 563
1.16585514476 -74.0908279194 564
1.16585514476 -74.0908279194 565
1.16585514476 -74.0908279194 566
1.16585514476 -74.0908279194 567
1.16585514476 -74.0908279194 568
1.16585514476 -74.0908279194 569
1.16585514476 -74.0908279194 570
1.16585514476 -74.0908279194 571
1.16585514476 -74.0908279194 572
1.16585514476 -74.0908279194 573
1.16585514476 -74.0908279194 574
1.16585514476 -74.0908279194 575
1.22564258809 -77.8903575563 576
1.22564258809 -77.8903575563 577
1.19574886643 -75.9905927378 578
1.19574886643 -75.9905927378 579
1.19574886643 -75.9905927378 580
1.19574886643 -75.9905927378 581
1.19574886643 -75.9905927378 582
1.22564258809 -77.8903575563 583
1.22564258809 -77.8903575563 584
1.22564258809 -77.8903575563 585
1.22564258809 -77.8903575563 586
1.22564258809 -77.8903575563 587
1.19574886643 -75.9905927378 588
1.22564258809 -77.8903575563 589
1.22564258809 -77.8903575563 590
1.22564258809 -77.8903575563 591
1.22564258809 -77.8903575563 592
1.22564258809 -77.8903575563 593
1.22564258809 -77.8903575563 594
1.22564258809 -77.8903575563 595
1.22564258809 -77.8903575563 596
1.19574886643 -75.9905927378 597
1.19574886643 -75.9905927378 598
1.19574886643 -75.9905927378 599
1.19574886643 -75.9905927378 600
1.22564258809 -77.8903575563 601
1.22564258809 -77.8903575563 602
1.19574886643 -75.9905927378 603
1.19574886643 -75.9905927378 604
1.19574886643 -75.9905927378 605
1.19574886643 -75.9905927378 606
1.16585514476 -74.0908279194 607
1.16585514476 -74.0908279194 608
1.16585514476 -74.0908279194 609
1.16585514476 -74.0908279194 610
1.1359614231 -72.1910631009 611
1.1359614231 -72.1910631009 612
1.1359614231 -72.1910631009 613
1.1359614231 -72.1910631009 614
1.1359614231 -72.1910631009 615
1.10606770144 -70.2912982825 616
1.10606770144 -70.2912982825 617
1.10606770144 -70.2912982825 618
1.10606770144 -70.2912982825 619
1.07617397978 -68.3915334641 620
1.07617397978 -68.3915334641 621
1.04628025812 -66.4917686456 622
1.04628025812 -66.4917686456 623
1.04628025812 -66.4917686456 624
1.04628025812 -66.4917686456 625
1.04628025812 -66.4917686456 626
1.01638653646 -64.5920038272 627
1.01638653646 -64.5920038272 628
1.01638653646 -64.5920038272 629
1.04628025812 -66.4917686456 630
1.04628025812 -66.4917686456 631
1.01638653646 -64.5920038272 632
1.01638653646 -64.5920038272 633
0.986492814801 -62.6922390087 634
0.986492814801 -62.6922390087 635
0.986492814801 -62.6922390087 636
0.986492814801 -62.6922390087 637
0.95659909314 -60.7924741903 638
0.95659909314 -60.7924741903 639
0.95659909314 -60.7924741903 640
0.95659909314 -60.7924741903 641
0.95659909314 -60.7924741903 642
0.92670537148 -58.8927093718 643
0.92670537148 -58.8927093718 644
0.896811649819 -56.9929445534 645
0.896811649819 -56.9929445534 646
0.866917928159 -55.0931797349 647
0.866917928159 -55.0931797349 648
0.866917928159 -55.0931797349 649
0.159439029761 -30.3995818918 513
0.159439029761 -30.3995818918 514
0.189333847841 -36.0995034965 515
0.199298787201 -37.9994773647 516
0.209263726561 -39.899451233 517
0.209263726561 -39.899451233 518
0.219228665921 -41.7994251012 519
0.219228665921 -41.7994251012 520
0.229193605281 -43.6993989695 521
0.239158544642 -45.5993728377 522
0.239158544642 -45.5993728377 523
0.249123484002 -47.4993467059 524
0.259088423362 -49.3993205742 525
0.259088423362 -49.3993205742 526
0.259088423362 -49.3993205742 527
0.269053362722 -51.2992944424 528
0.269053362722 -51.2992944424 529
0.269053362722 -51.2992944424 530
0.269053362722 -51.2992944424 531
0.279018302082 -53.1992683106 532
0.288983241442 -55.0992421789 533
0.288983241442 -55.0992421789 534
0.298948180802 -56.9992160471 535
0.298948180802 -56.9992160471 536
0.308913120162 -58.8991899153 537
0.308913120162 -58.8991899153 538
0.308913120162 -58.8991899153 539
0.318878059522 -60.7991637836 540
0.318878059522 -60.7991637836 541
0.318878059522 -60.7991637836 542
0.328842998882 -62.6991376518 543
0.328842998882 -62.6991376518 544
0.338807938242 -64.5991115201 545
0.338807938242 -64.5991115201 546
0.348772877602 -66.4990853883 547
0.348772877602 -66.4990853883 548
0.348772877602 -66.4990853883 549
0.358737816962 -68.3990592565 550
0.358737816962 -68.3990592565 551
0.358737816962 -68.3990592565 552
0.358737816962 -68.3990592565 553
0.358737816962 -68.3990592565 554
0.358737816962 -68.3990592565 555
0.358737816962 -68.3990592565 556
0.368702756322 -70.2990331248 557
0.368702756322 -70.2990331248 558
0.378667695682 -72.199006993 559
0.378667695682 -72.199006993 560
0.378667695682 -72.199006993 561
0.378667695682 -72.199006993 562
0.378667695682 -72.199006993 563
0.378667695682 -72.199006993 564
0.388632635042 -74.0989808612 565
0.388632635042 -74.0989808612 566
0.398597574403 -75.9989547295 567
0.398597574403 -75.9989547295 568
0.398597574403 -75.9989547295 569
0.398597574403 -75.9989547295 570
0.398597574403 -75.9989547295 571
0.398597574403 -75.9989547295 572
0.398597574403 -75.9989547295 573
0.398597574403 -75.9989547295 574
0.398597574403 -75.9989547295 575
0.398597574403 -75.9989547295 576
0.398597574403 -75.9989547295 577
0.398597574403 -75.9989547295 578
0.398597574403 -75.9989547295 579
0.398597574403 -75.9989547295 580
0.408562513763 -77.8989285977 581
0.408562513763 -77.8989285977 582
0.398597574403 -75.9989547295 583
0.398597574403 -75.9989547295 584
0.408562513763 -77.8989285977 585
0.408562513763 -77.8989285977 586
0.408562513763 -77.8989285977 587
0.408562513763 -77.8989285977 588
0.408562513763 -77.8989285977 589
0.408562513763 -77.8989285977 590
0.408562513763 -77.8989285977 591
0.408562513763 -77.8989285977 592
0.408562513763 -77.8989285977 593
0.408562513763 -77.8989285977 594
0.408562513763 -77.8989285977 595
0.398597574403 -75.9989547295 596
0.398597574403 -75.9989547295 597
0.398597574403 -75.9989547295 598
0.398597574403 -75.9989547295 599
0.398597574403 -75.9989547295 600
0.398597574403 -75.9989547295 601
0.398597574403 -75.9989547295 602
0.398597574403 -75.9989547295 603
0.398597574403 -75.9989547295 604
0.398597574403 -75.9989547295 605
0.398597574403 -75.9989547295 606
0.388632635042 -74.0989808612 607
0.388632635042 -74.0989808612 608
0.388632635042 -74.0989808612 609
0.378667695682 -72.199006993 610
0.378667695682 -72.199006993 611
0.378667695682 -72.199006993 612
0.378667695682 -72.199006993 613
0.378667695682 -72.199006993 614
0.378667695682 -72.199006993 615
0.368702756322 -70.2990331248 616
0.358737816962 -68.3990592565 617
0.358737816962 -68.3990592565 618
0.358737816962 -68.3990592565 619
0.358737816962 -68.3990592565 620
0.358737816962 -68.3990592565 621
0.358737816962 -68.3990592565 622
0.358737816962 -68.3990592565 623
0.358737816962 -68.3990592565 624
0.358737816962 -68.3990592565 625
0.348772877602 -66.4990853883 626
0.348772877602 -66.4990853883 627
0.348772877602 -66.4990853883 628
0.348772877602 -66.4990853883 629
0.348772877602 -66.4990853883 630
0.348772877602 -66.4990853883 631
0.338807938242 -64.5991115201 632
0.338807938242 -64.5991115201 633
0.338807938242 -64.5991115201 634
0.328842998882 -62.6991376518 635
0.328842998882 -62.6991376518 636
0.318878059522 -60.7991637836 637
0.318878059522 -60.7991637836 638
0.318878059522 -60.7991637836 639
0.318878059522 -60.7991637836 640
0.308913120162 -58.8991899153 641
0.308913120162 -58.8991899153 642
0.308913120162 -58.8991899153 643
0.308913120162 -58.8991899153 644
0.298948180802 -56.9992160471 645
0.298948180802 -56.9992160471 646
0.288983241442 -55.0992421789 647
0.288983241442 -55.0992421789 648
0.279018302082 -53.1992683106 649
-0.129544211681 -24.6996602871 510
-0.129544211681 -24.6996602871 511
-0.139509151041 -26.5996341553 512
-0.139509151041 -26.5996341553 513
-0.179368908481 -34.1995296283 514
-0.189333847841 -36.0995034965 515
-0.199298787201 -37.9994773647 516
-0.209263726561 -39.899451233 517
-0.209263726561 -39.899451233 518
-0.219228665921 -41.7994251012 519
-0.229193605281 -43.6993989695 520
-0.229193605281 -43.6993989695 521
-0.239158544641 -45.5993728377 522
-0.259088423362 -49.3993205742 523
-0.259088423362 -49.3993205742 524
-0.259088423362 -49.3993205742 525
-0.259088423362 -49.3993205742 526
-0.259088423362 -49.3993205742 527
-0.269053362722 -51.2992944424 528
-0.279018302082 -53.1992683106 529
-0.279018302082 -53.1992683106 530
-0.279018302082 -53.1992683106 531
-0.288983241442 -55.0992421789 532
-0.288983241442 -55.0992421789 533
-0.288983241442 -55.0992421789 534
-0.298948180802 -56.9992160471 535
-0.298948180802 -56.9992160471 536
-0.308913120162 -58.8991899153 537
-0.308913120162 -58.8991899153 538
-0.318878059522 -60.7991637836 539
-0.318878059522 -60.7991637836 540
-0.318878059522 -60.7991637836 541
-0.328842998882 -62.6991376518 542
-0.328842998882 -62.6991376518 543
-0.328842998882 -62.6991376518 544
-0.338807938242 -64.5991115201 545
-0.338807938242 -64.5991115201 546
-0.348772877602 -66.4990853883 547
-0.348772877602 -66.4990853883 548
-0.348772877602 -66.4990853883 549
-0.348772877602 -66.4990853883 550
-0.358737816962 -68.3990592565 551
-0.358737816962 -68.3990592565 552
-0.358737816962 -68.3990592565 553
-0.358737816962 -68.3990592565 554
-0.368702756322 -70.2990331248 555
-0.368702756322 -70.2990331248 556
-0.368702756322 -70.2990331248 557
-0.368702756322 -70.2990331248 558
-0.368702756322 -70.2990331248 559
-0.378667695682 -72.199006993 560
-0.378667695682 -72.199006993 561
-0.378667695682 -72.199006993 562
-0.378667695682 -72.199006993 563
-0.388632635042 -74.0989808612 564
-0.388632635042 -74.0989808612 565
-0.388632635042 -74.0989808612 566
-0.388632635042 -74.0989808612 567
-0.388632635042 -74.0989808612 568
-0.388632635042 -74.0989808612 569
-0.388632635042 -74.0989808612 570
-0.398597574402 -75.9989547295 571
-0.388632635042 -74.0989808612 572
-0.398597574402 -75.9989547295 573
-0.398597574402 -75.9989547295 574
-0.408562513763 -77.8989285977 575
-0.398597574402 -75.9989547295 576
-0.398597574402 -75.9989547295 577
-0.398597574402 -75.9989547295 578
-0.398597574402 -75.9989547295 579
-0.398597574402 -75.9989547295 580
-0.408562513763 -77.8989285977 581
-0.408562513763 -77.8989285977 582
-0.408562513763 -77.8989285977 583
-0.408562513763 -77.8989285977 584
-0.408562513763 -77.8989285977 585
-0.408562513763 -77.8989285977 586
-0.408562513763 -77.8989285977 587
-0.408562513763 -77.8989285977 588
-0.408562513763 -77.8989285977 589
-0.408562513763 -77.8989285977 590
-0.408562513763 -77.8989285977 591
-0.408562513763 -77.8989285977 592
-0.408562513763 -77.8989285977 593
-0.408562513763 -77.8989285977 594
-0.408562513763 -77.8989285977 595
-0.408562513763 -77.8989285977 596
-0.398597574402 -75.9989547295 597
-0.398597574402 -75.9989547295 598
-0.398597574402 -75.9989547295 599
-0.398597574402 -75.9989547295 600
-0.388632635042 -74.0989808612 601
-0.388632635042 -74.0989808612 602
-0.388632635042 -74.0989808612 603
-0.398597574402 -75.9989547295 604
-0.388632635042 -74.0989808612 605
